1555

 0.0372 7.448   9.860  21.703
 0.1166 7.274   8.886  22.120
 0.0372 6.761   9.053  23.054
 0.0372 8.209   8.450  22.497
-0.6497 6.484   8.093  21.267
 0.4215 7.094   7.654  20.692
 0.0372 14.145   7.239  15.242
 0.1166 14.737   6.450  14.773
 0.0372 15.108   6.774  13.826
 0.0372 14.065   5.629  14.606
-0.6497 15.789   5.995  15.571
 0.4215 16.371   6.753  15.723
 0.0372 14.557   9.625  18.551
 0.1166 14.751   9.065  19.459
 0.0372 14.104   8.196  19.464
 0.0372 14.708   9.700  20.346
-0.6497 16.064   8.538  19.295
 0.4215 16.181   7.776  19.891
 0.0372 16.682  -4.557  11.901
 0.1166 15.607  -4.231  11.901
 0.0372 15.013  -5.141  11.788
 0.0372 15.461  -3.600  11.005
-0.6497 15.300  -3.487  13.050
 0.4215 14.360  -3.270  13.049
 0.0372 14.668 -13.592  16.868
 0.1166 15.649 -13.535  16.353
 0.0372 16.475 -13.762  17.062
 0.0372 15.777 -12.540  15.904
-0.6497 15.609 -14.498  15.321
 0.4215 14.865 -14.349  14.693
 0.0372 23.534  15.205   0.797
 0.1166 23.762  14.746  -0.145
 0.0372 24.722  14.292   0.050
 0.0372 23.861  15.508  -0.930
-0.6497 22.907  13.730  -0.622
 0.4215 22.046  14.146  -0.789
 0.0372 14.396  14.630  14.106
 0.1166 14.892  14.625  15.091
 0.0372 14.244  15.124  15.785
 0.0372 15.918  15.011  15.039
-0.6497 14.932  13.313  15.556
 0.4215 14.181  13.024  16.123
 0.0372 16.150  -1.677  23.526
 0.1166 15.774  -2.501  22.918
 0.0372 16.228  -3.420  23.236
 0.0372 16.137  -2.372  21.905
-0.6497 14.371  -2.500  22.829
 0.4215 14.190  -3.004  22.007
 0.0372 5.676 -10.151  22.333
 0.1166 5.335  -9.247  22.869
 0.0372 4.284  -8.990  22.667
 0.0372 6.086  -8.468  22.523
-0.6497 5.441  -9.430  24.277
 0.4215 4.534  -9.618  24.611
 0.0372 14.750  -6.487  21.022
 0.1166 15.067  -5.480  21.157
 0.0372 16.058  -5.376  20.715
 0.0372 15.200  -5.199  22.229
-0.6497 14.101  -4.578  20.599
 0.4215 13.188  -4.863  20.739
 0.0372 14.797  -7.546  12.878
 0.1166 15.497  -7.639  13.681
 0.0372 15.919  -6.620  13.856
 0.0372 16.271  -8.324  13.480
-0.6497 14.940  -8.123  14.940
 0.4215 14.229  -7.579  15.288
 0.0372 10.120  -8.326  23.542
 0.1166 9.019  -8.585  23.462
 0.0372 8.829  -9.675  23.422
 0.0372 8.661  -8.206  22.474
-0.6497 8.105  -7.966  24.421
 0.4215 7.436  -8.662  24.551
 0.0372 24.680   2.027   6.465
 0.1166 23.926   1.432   7.043
 0.0372 24.294   1.077   8.026
 0.0372 23.592   0.586   6.430
-0.6497 22.773   2.181   7.170
 0.4215 21.995   1.569   7.200
 0.0372 18.755  -2.556  19.140
 0.1166 18.125  -2.852  18.322
 0.0372 17.059  -2.657  18.504
 0.0372 18.213  -3.914  18.139
-0.6497 18.582  -2.417  17.056
 0.4215 18.071  -2.739  16.301
 0.0372 10.652   7.516  19.711
 0.1166 10.369   6.491  19.835
 0.0372 11.239   5.954  20.145
 0.0372 9.947   6.139  18.843
-0.6497 9.423   6.364  20.868
 0.4215 9.787   5.624  21.370
 0.0372 4.401 -14.389  16.723
 0.1166 4.222 -13.330  17.006
 0.0372 3.306 -13.115  16.449
 0.0372 4.907 -12.580  16.607
-0.6497 4.056 -13.155  18.386
 0.4215 3.236 -13.656  18.532
 0.0372 12.912 -15.980  13.981
 0.1166 12.516 -14.966  13.749
 0.0372 11.898 -14.458  14.475
 0.0372 11.816 -15.067  12.875
-0.6497 13.634 -14.017  13.536
 0.4215 13.268 -13.122  13.468
 0.0372 12.354  -5.088  16.955
 0.1166 12.151  -5.882  16.177
 0.0372 12.261  -5.420  15.177
 0.0372 11.110  -6.160  16.342
-0.6497 13.062  -6.971  16.318
 0.4215 13.602  -6.679  17.059
 0.0372 11.790  -3.747  14.085
 0.1166 11.811  -2.696  13.844
 0.0372 11.938  -2.224  14.834
 0.0372 10.839  -2.519  13.410
-0.6497 12.825  -2.448  12.887
 0.4215 12.508  -1.668  12.402
 0.0372 3.795  15.182  16.751
 0.1166 2.783  15.226  17.140
 0.0372 2.737  16.041  17.845
 0.0372 2.514  14.294  17.656
-0.6497 1.884  15.393  16.057
 0.4215 1.045  15.229  16.513
 0.0372 22.564  -2.586  15.847
 0.1166 21.739  -2.019  15.400
 0.0372 20.953  -2.579  14.833
 0.0372 22.211  -1.278  14.735
-0.6497 21.244  -1.326  16.490
 0.4215 20.384  -1.685  16.725
 0.0372 14.301  -0.373  19.798
 0.1166 14.543   0.711  19.684
 0.0372 15.606   0.896  19.875
 0.0372 13.949   1.260  20.415
-0.6497 14.092   1.196  18.479
 0.4215 14.261   0.442  17.891
 0.0372 21.377   2.429  15.713
 0.1166 20.651   1.839  16.303
 0.0372 21.214   1.068  16.793
 0.0372 20.019   1.378  15.597
-0.6497 19.903   2.745  17.083
 0.4215 19.132   3.077  16.590
 0.0372 18.236  -4.982  13.400
 0.1166 18.454  -4.244  14.181
 0.0372 19.032  -3.421  13.693
 0.0372 19.174  -4.729  14.874
-0.6497 17.322  -3.754  14.894
 0.4215 16.700  -3.532  14.211
 0.0372 20.469   0.122  19.178
 0.1166 20.126   0.781  20.013
 0.0372 20.874   1.409  20.555
 0.0372 19.587   0.130  20.725
-0.6497 19.222   1.738  19.570
 0.4215 19.465   1.940  18.662
 0.0372 17.308   1.630  -0.589
 0.1166 17.682   2.271  -1.366
 0.0372 18.487   2.968  -1.078
 0.0372 16.868   2.868  -1.804
-0.6497 18.146   1.378  -2.345
 0.4215 17.914   1.794  -3.200
 0.0372 8.585  10.873  11.293
 0.1166 8.002   9.927  11.288
 0.0372 7.003  10.154  10.968
 0.0372 8.066   9.527  12.297
-0.6497 8.527   8.965  10.392
 0.4215 8.413   9.273   9.501
 0.0372 17.473  14.900   9.707
 0.1166 17.088  14.124  10.375
 0.0372 17.136  14.384  11.461
 0.0372 17.785  13.336  10.137
-0.6497 15.756  13.941   9.954
 0.4215 15.736  13.046   9.609
 0.0372 14.643   5.064  21.961
 0.1166 15.367   5.870  21.938
 0.0372 16.266   5.600  22.527
 0.0372 15.009   6.765  22.444
-0.6497 15.931   6.265  20.731
 0.4215 16.458   5.477  20.511
 0.0372 4.776  -3.159  17.104
 0.1166 3.743  -2.756  17.072
 0.0372 3.817  -1.793  16.627
 0.0372 3.330  -2.741  18.094
-0.6497 2.819  -3.556  16.376
 0.4215 2.544  -2.990  15.642
 0.0372 9.588   2.972  20.031
 0.1166 9.905   1.974  19.719
 0.0372 9.039   1.364  19.584
 0.0372 10.634   1.600  20.456
-0.6497 10.493   2.025  18.464
 0.4215 11.295   2.555  18.567
 0.0372 8.348  -3.161  13.563
 0.1166 8.095  -2.128  13.855
 0.0372 7.037  -2.108  14.046
 0.0372 8.462  -1.374  13.124
-0.6497 8.779  -1.946  15.086
 0.4215 8.434  -1.138  15.507
 0.0372 5.309  -5.955  22.883
 0.1166 6.082  -5.260  23.209
 0.0372 5.972  -5.062  24.272
 0.0372 5.984  -4.296  22.721
-0.6497 7.375  -5.750  22.917
 0.4215 7.457  -6.712  22.860
 0.0372 21.418 -15.803   4.149
 0.1166 20.649 -15.745   4.938
 0.0372 19.873 -16.486   4.805
 0.0372 20.177 -14.773   4.821
-0.6497 21.339 -15.742   6.217
 0.4215 21.966 -15.013   6.144
 0.0372 14.308  -2.525  15.856
 0.1166 14.124  -1.835  16.683
 0.0372 14.466  -2.490  17.489
 0.0372 13.082  -1.609  16.821
-0.6497 14.833  -0.673  16.542
 0.4215 14.927  -0.356  15.626
 0.0372 22.919   6.018   6.599
 0.1166 22.913   5.947   7.683
 0.0372 23.168   4.920   7.896
 0.0372 21.937   6.160   8.062
-0.6497 23.991   6.754   8.194
 0.4215 24.807   6.277   8.011
 0.0372 16.740   9.362   7.815
 0.1166 16.731  10.234   8.504
 0.0372 17.760  10.552   8.508
 0.0372 16.377   9.781   9.427
-0.6497 15.771  11.238   8.108
 0.4215 14.924  10.764   8.168
 0.0372 27.883   1.293  10.363
 0.1166 27.694   2.199   9.784
 0.0372 27.663   1.747   8.803
 0.0372 28.441   2.990   9.960
-0.6497 26.335   2.647  10.090
 0.4215 26.292   3.548   9.729
 0.0372 13.922  13.689  18.404
 0.1166 13.715  12.622  18.360
 0.0372 13.325  12.192  19.285
 0.0372 14.664  12.141  18.141
-0.6497 12.902  12.334  17.268
 0.4215 12.718  11.397  17.120
 0.0372 15.642  -2.133   2.589
 0.1166 15.443  -1.118   2.913
 0.0372 15.397  -0.541   1.982
 0.0372 16.290  -0.892   3.570
-0.6497 14.291  -0.938   3.738
 0.4215 13.624  -0.406   3.236
 0.0372 25.270   9.574   9.571
 0.1166 24.411   9.248  10.138
 0.0372 24.219  10.025  10.867
 0.0372 24.589   8.265  10.574
-0.6497 23.321   9.038   9.253
 0.4215 23.551   8.202   8.784
 0.0372 18.328  10.236   5.858
 0.1166 18.019  11.280   5.775
 0.0372 18.290  11.643   6.770
 0.0372 16.940  11.439   5.541
-0.6497 18.812  11.943   4.748
 0.4215 18.875  11.343   3.999
 0.0372 26.927  -5.199  -4.858
 0.1166 26.764  -5.957  -4.121
 0.0372 27.374  -5.760  -3.208
 0.0372 27.163  -6.870  -4.539
-0.6497 25.404  -6.027  -3.951
 0.4215 25.158  -6.939  -3.742
 0.0372 16.234 -10.265   5.171
 0.1166 15.824 -10.631   4.209
 0.0372 15.718  -9.760   3.540
 0.0372 14.803 -11.066   4.312
-0.6497 16.697 -11.567   3.549
 0.4215 16.097 -12.189   3.110
 0.0372 21.022   0.267  10.922
 0.1166 21.913   0.646  11.411
 0.0372 21.583   0.944  12.387
 0.0372 22.240   1.517  10.828
-0.6497 22.882  -0.307  11.614
 0.4215 23.601   0.304  11.841
 0.0372 26.419 -10.934   3.715
 0.1166 26.042 -11.897   3.491
 0.0372 26.267 -12.596   4.311
 0.0372 26.442 -12.092   2.523
-0.6497 24.622 -11.819   3.391
 0.4215 24.345 -10.956   3.039
 0.0372 27.894  -1.039   5.670
 0.1166 27.683  -1.212   6.719
 0.0372 27.071  -0.350   7.058
 0.0372 28.624  -1.379   7.283
-0.6497 26.848  -2.358   6.861
 0.4215 25.952  -2.166   6.589
 0.0372 18.829  -8.335   0.906
 0.1166 18.614  -9.345   0.518
 0.0372 17.955  -9.385  -0.323
 0.0372 18.243  -9.958   1.290
-0.6497 19.833 -10.048   0.148
 0.4215 20.384  -9.424  -0.367
 0.0372 14.925  -9.107  -7.178
 0.1166 14.643  -8.083  -7.407
 0.0372 14.192  -8.069  -8.369
 0.0372 15.557  -7.475  -7.409
-0.6497 13.712  -7.754  -6.372
 0.4215 13.217  -8.528  -6.134
 0.0372 14.305   7.852   5.186
 0.1166 14.226   6.956   5.781
 0.0372 15.235   6.573   5.939
 0.0372 13.639   6.236   5.269
-0.6497 13.690   7.425   6.984
 0.4215 14.240   7.003   7.677
 0.0372 23.088  -6.937   0.083
 0.1166 23.499  -5.883   0.066
 0.0372 22.831  -5.193  -0.426
 0.0372 24.430  -5.936  -0.535
-0.6497 23.884  -5.395   1.413
 0.4215 23.039  -5.212   1.849
 0.0372 2.661 -11.577   1.525
 0.1166 3.584 -11.489   0.946
 0.0372 3.590 -10.503   0.491
 0.0372 3.447 -12.215   0.162
-0.6497 4.859 -11.726   1.608
 0.4215 4.874 -11.093   2.336
 0.0372 16.028  -5.013  -8.792
 0.1166 15.808  -3.957  -8.683
 0.0372 15.501  -3.463  -9.621
 0.0372 16.725  -3.459  -8.269
-0.6497 14.710  -3.830  -7.857
 0.4215 14.890  -4.141  -6.982
 0.0372 10.519   2.677   7.342
 0.1166 10.886   2.347   8.316
 0.0372 10.592   1.331   8.638
 0.0372 10.496   3.049   9.078
-0.6497 12.279   2.438   8.466
 0.4215 12.427   2.862   9.335
 0.0372 12.654   4.327  15.571
 0.1166 11.982   3.566  15.142
 0.0372 11.173   3.409  15.865
 0.0372 12.521   2.621  15.010
-0.6497 11.370   3.886  13.894
 0.4215 10.514   4.307  14.088
 0.0372 19.749  -6.648   9.582
 0.1166 19.429  -7.453  10.226
 0.0372 20.267  -8.050  10.476
 0.0372 18.694  -7.943   9.615
-0.6497 18.828  -6.907  11.445
 0.4215 18.741  -7.614  12.095
 0.0372 3.261   2.668  11.129
 0.1166 2.999   3.057  10.164
 0.0372 2.983   4.161  10.121
 0.0372 1.986   2.672   9.911
-0.6497 3.899   2.478   9.335
 0.4215 4.596   3.124   9.074
 0.0372 10.630  17.259   5.083
 0.1166 11.641  16.812   5.108
 0.0372 12.028  17.059   6.116
 0.0372 12.286  17.299   4.365
-0.6497 11.615  15.364   4.798
 0.4215 12.420  15.018   5.202
 0.0372 16.149 -15.906  -7.128
 0.1166 15.155 -16.244  -7.122
 0.0372 14.623 -15.444  -7.586
 0.0372 14.959 -16.356  -6.047
-0.6497 15.228 -17.436  -7.921
 0.4215 15.203 -17.207  -8.861
 0.0372 10.769   5.216   6.751
 0.1166 9.911   5.236   6.062
 0.0372 9.024   5.443   6.675
 0.0372 9.882   4.234   5.672
-0.6497 10.125   6.283   5.093
 0.4215 10.448   7.075   5.545
 0.0372 9.468  -3.064   7.240
 0.1166 9.184  -3.885   6.551
 0.0372 9.972  -4.090   5.818
 0.0372 8.336  -3.562   5.969
-0.6497 8.899  -5.071   7.343
 0.4215 9.706  -5.326   7.848
 0.0372 10.383  -0.319   9.924
 0.1166 10.553   0.028  10.983
 0.0372 9.737  -0.297  11.645
 0.0372 10.508   1.121  10.979
-0.6497 11.876  -0.341  11.374
 0.4215 12.516  -0.125  10.669
 0.0372 25.159 -13.557   6.263
 0.1166 24.458 -14.069   6.904
 0.0372 24.691 -13.679   7.878
 0.0372 24.544 -15.113   6.744
-0.6497 23.156 -13.654   6.530
 0.4215 23.089 -12.681   6.615
 0.0372 12.531   9.428  -4.904
 0.1166 11.577   9.722  -5.362
 0.0372 11.319  10.778  -5.163
 0.0372 10.844   9.106  -4.845
-0.6497 11.632   9.382  -6.737
 0.4215 10.750   9.662  -7.108
 0.0372 12.435   4.730 -11.086
 0.1166 13.066   3.859 -11.314
 0.0372 12.841   3.126 -10.514
 0.0372 14.116   4.165 -11.247
-0.6497 12.693   3.273 -12.573
 0.4215 11.735   3.281 -12.628
 0.0372 25.405   7.191  -4.705
 0.1166 25.472   6.319  -4.089
 0.0372 26.526   6.269  -3.717
 0.0372 25.347   5.459  -4.706
-0.6497 24.499   6.370  -3.036
 0.4215 23.632   6.508  -3.449
 0.0372 17.796   3.422  -5.089
 0.1166 17.420   2.503  -5.574
 0.0372 18.193   1.816  -5.862
 0.0372 16.829   2.795  -6.481
-0.6497 16.503   1.844  -4.660
 0.4215 15.793   2.485  -4.554
 0.0372 13.772   2.210  11.506
 0.1166 13.613   3.291  11.480
 0.0372 14.180   3.761  10.639
 0.0372 13.898   3.650  12.515
-0.6497 12.191   3.420  11.286
 0.4215 11.828   3.166  12.142
 0.0372 13.218  -1.458  -7.707
 0.1166 13.777  -0.721  -8.263
 0.0372 13.665  -0.742  -9.335
 0.0372 14.798  -0.990  -8.108
-0.6497 13.589   0.607  -7.775
 0.4215 12.719   1.001  -8.080
 0.0372 25.180   0.727   2.560
 0.1166 24.151   0.945   2.647
 0.0372 23.659   0.768   1.693
 0.0372 24.112   2.009   2.879
-0.6497 23.522   0.158   3.603
 0.4215 22.600   0.460   3.699
 0.0372 24.922  -2.392   3.579
 0.1166 24.460  -2.719   4.528
 0.0372 25.018  -3.542   5.065
 0.0372 23.390  -2.921   4.361
-0.6497 24.409  -1.583   5.421
 0.4215 24.066  -0.828   4.920
 0.0372 14.372   4.452   4.117
 0.1166 14.373   3.893   3.153
 0.0372 13.867   2.952   3.151
 0.0372 15.442   3.670   3.008
-0.6497 13.860   4.758   2.114
 0.4215 12.894   4.735   2.201
 0.0372 18.956 -13.390  -2.784
 0.1166 19.402 -12.715  -2.042
 0.0372 20.301 -12.184  -2.441
 0.0372 19.667 -13.301  -1.149
-0.6497 18.437 -11.741  -1.696
 0.4215 18.852 -11.261  -0.975
 0.0372 23.338  -1.516   8.808
 0.1166 24.191  -1.975   9.351
 0.0372 24.947  -1.236   9.497
 0.0372 24.611  -2.693   8.678
-0.6497 23.686  -2.736  10.431
 0.4215 23.260  -2.150  11.083
 0.0372 20.182  11.570  -1.092
 0.1166 20.008  11.886  -2.126
 0.0372 20.839  11.493  -2.699
 0.0372 19.860  12.980  -2.170
-0.6497 18.791  11.322  -2.670
 0.4215 18.881  10.371  -2.542
 0.0372 14.743   6.962  -2.242
 0.1166 13.658   6.941  -2.198
 0.0372 13.384   6.131  -2.805
 0.0372 13.298   7.927  -2.591
-0.6497 13.111   6.735  -0.862
 0.4215 12.885   5.773  -0.852
 0.0372 18.584   6.052  19.851
 0.1166 18.924   5.013  19.839
 0.0372 19.749   4.896  20.520
 0.0372 19.331   4.787  18.840
-0.6497 17.817   4.192  20.224
 0.4215 18.160   3.285  20.329
 0.0372 19.699  -0.506   8.278
 0.1166 20.712  -0.251   8.009
 0.0372 21.281  -1.106   7.624
 0.0372 21.095   0.274   8.861
-0.6497 20.612   0.578   6.911
 0.4215 20.147  -0.001   6.287
 0.0372 16.743  -6.591  -0.055
 0.1166 17.560  -6.249  -0.701
 0.0372 18.190  -7.086  -1.002
 0.0372 18.164  -5.518  -0.150
-0.6497 17.134  -5.567  -1.808
 0.4215 16.792  -4.714  -1.483
 0.0372 21.565  -5.444  -5.058
 0.1166 22.379  -5.665  -4.312
 0.0372 23.171  -4.905  -4.295
 0.0372 22.862  -6.616  -4.557
-0.6497 21.867  -5.813  -2.986
 0.4215 21.454  -4.990  -2.689
 0.0372 20.512   2.357   0.861
 0.1166 20.198   2.598   1.876
 0.0372 19.905   3.640   1.858
 0.0372 20.997   2.515   2.621
-0.6497 19.021   1.779   2.218
 0.4215 19.111   0.892   1.857
 0.0372 19.169  -3.070  -1.693
 0.1166 19.985  -2.377  -1.805
 0.0372 20.024  -1.751  -0.935
 0.0372 19.784  -1.754  -2.672
-0.6497 21.198  -3.136  -1.931
 0.4215 21.485  -3.181  -0.983
 0.0372 17.521  -2.808   4.299
 0.1166 17.602  -2.424   5.285
 0.0372 16.689  -2.021   5.664
 0.0372 18.290  -1.595   5.334
-0.6497 18.068  -3.508   6.026
 0.4215 17.361  -4.129   6.265
 0.0372 16.391   5.961  -0.678
 0.1166 16.734   5.232   0.070
 0.0372 17.806   5.295   0.166
 0.0372 16.315   4.247  -0.165
-0.6497 16.180   5.615   1.289
 0.4215 15.211   5.524   1.347
 0.0372 14.907   0.619   5.991
 0.1166 14.609   1.568   5.517
 0.0372 15.001   1.572   4.493
 0.0372 15.097   2.439   5.997
-0.6497 13.261   1.954   5.571
 0.4215 13.146   1.854   6.550
 0.0372 6.483  -6.424   8.680
 0.1166 5.847  -5.591   8.447
 0.0372 6.078  -4.721   9.089
 0.0372 4.844  -5.902   8.710
-0.6497 6.058  -5.280   7.073
 0.4215 7.007  -5.434   6.898
 0.0372 12.381  -8.909  13.280
 0.1166 12.099  -7.866  13.096
 0.0372 12.486  -7.694  12.087
 0.0372 12.562  -7.128  13.750
-0.6497 10.699  -7.720  12.929
 0.4215 10.494  -6.898  12.450
 0.0372 9.939  -9.491  -5.699
 0.1166 8.988  -8.951  -5.751
 0.0372 8.313  -9.520  -6.400
 0.0372 9.060  -7.995  -6.229
-0.6497 8.447  -8.943  -4.405
 0.4215 8.868  -9.665  -3.930
 0.0372 25.108 -12.336   0.241
 0.1166 25.259 -13.240  -0.377
 0.0372 25.539 -14.144   0.137
 0.0372 26.146 -12.993  -0.992
-0.6497 24.206 -13.362  -1.306
 0.4215 23.414 -13.582  -0.802
 0.0372 11.988 -15.238  -3.976
 0.1166 12.165 -14.814  -2.979
 0.0372 11.276 -15.062  -2.388
 0.0372 12.245 -13.713  -3.045
-0.6497 13.381 -15.409  -2.498
 0.4215 13.274 -16.359  -2.390
 0.0372 11.781   2.751   2.959
 0.1166 11.492   1.694   2.822
 0.0372 10.478   1.760   2.356
 0.0372 11.277   1.417   3.848
-0.6497 12.445   0.928   2.151
 0.4215 12.755   1.448   1.367
 0.0372 21.898   5.806  -0.003
 0.1166 22.184   4.955  -0.607
 0.0372 22.911   5.167  -1.367
 0.0372 21.320   4.368  -0.914
-0.6497 22.841   4.092   0.252
 0.4215 22.943   3.299  -0.279
 0.0372 16.702 -13.323  12.475
 0.1166 17.676 -13.618  12.082
 0.0372 18.047 -14.513  12.571
 0.0372 18.490 -12.961  12.155
-0.6497 17.449 -13.886  10.741
 0.4215 18.211 -14.291  10.304
 0.0372 25.252  -0.505  12.991
 0.1166 25.777   0.405  12.779
 0.0372 26.670   0.133  12.251
 0.0372 26.007   0.976  13.717
-0.6497 24.963   1.213  12.047
 0.4215 25.475   1.763  11.442
 0.0372 9.571   4.087   2.732
 0.1166 10.191   4.608   2.016
 0.0372 9.573   5.347   1.476
 0.0372 10.576   3.856   1.327
-0.6497 11.224   5.244   2.725
 0.4215 10.908   5.731   3.484
 0.0372 27.739   4.039   4.442
 0.1166 27.073   3.687   5.240
 0.0372 27.612   3.104   5.974
 0.0372 26.324   2.994   4.821
-0.6497 26.453   4.806   5.808
 0.4215 26.173   5.413   5.056
 0.0372 -0.131  -7.154   4.026
 0.1166 -0.996  -7.763   3.685
 0.0372 -1.815  -7.100   3.389
 0.0372 -1.241  -8.426   4.542
-0.6497 -0.610  -8.373   2.417
 0.4215 0.118  -8.971   2.582
 0.0372 12.060  -6.618  -4.483
 0.1166 11.102  -6.338  -4.003
 0.0372 10.764  -7.198  -3.454
 0.0372 10.335  -6.147  -4.748
-0.6497 11.105  -5.249  -3.090
 0.4215 10.214  -5.308  -2.771
 0.0372 22.831  -1.319  -0.124
 0.1166 23.142  -2.153   0.517
 0.0372 23.427  -1.657   1.432
 0.0372 23.956  -2.740   0.101
-0.6497 21.926  -2.993   0.688
 0.4215 22.003  -3.595   1.434
 0.0372 19.969  -4.561   9.185
 0.1166 19.725  -3.488   9.142
 0.0372 18.686  -3.174   9.203
 0.0372 20.270  -3.025   8.278
-0.6497 20.485  -2.963  10.236
 0.4215 20.589  -3.709  10.850
 0.0372 27.312   3.504  -0.153
 0.1166 27.020   2.711  -0.841
 0.0372 27.819   1.998  -1.028
 0.0372 26.644   3.134  -1.818
-0.6497 25.967   1.964  -0.241
 0.4215 25.117   2.358  -0.460
 0.0372 9.595  -8.067   1.691
 0.1166 10.338  -7.622   1.018
 0.0372 9.821  -6.990   0.283
 0.0372 10.798  -8.471   0.488
-0.6497 11.321  -7.023   1.860
 0.4215 12.189  -7.110   1.436
 0.0372 15.087   1.563  -0.104
 0.1166 14.412   0.791  -0.501
 0.0372 14.407  -0.004   0.241
 0.0372 14.755   0.535  -1.519
-0.6497 13.170   1.403  -0.666
 0.4215 12.622   0.778  -1.127
 0.0372 24.694   8.187   3.175
 0.1166 24.857   7.716   4.143
 0.0372 23.975   7.977   4.751
 0.0372 25.788   8.166   4.525
-0.6497 25.015   6.307   4.078
 0.4215 24.214   5.889   3.723
 0.0372 10.563   5.611  -3.411
 0.1166 10.443   6.655  -3.700
 0.0372 11.119   6.969  -4.505
 0.0372 10.619   7.316  -2.841
-0.6497 9.151   6.928  -4.184
 0.4215 9.058   6.651  -5.116
 0.0372 21.510  -5.530  13.893
 0.1166 21.702  -5.880  12.884
 0.0372 21.387  -6.938  12.906
 0.0372 22.708  -5.803  12.517
-0.6497 20.812  -5.276  12.003
 0.4215 20.135  -5.925  11.676
 0.0372 19.773  -1.198  11.794
 0.1166 18.701  -1.218  11.965
 0.0372 18.424  -1.209  13.015
 0.0372 18.401  -2.154  11.503
-0.6497 18.235  -0.000  11.362
 0.4215 18.299   0.716  11.960
 0.0372 27.500  -8.956  -2.887
 0.1166 26.634  -8.937  -2.229
 0.0372 26.782  -7.991  -1.732
 0.0372 26.743  -9.844  -1.620
-0.6497 25.400  -8.846  -2.894
 0.4215 25.224  -9.751  -3.181
 0.0372 22.934  -8.597  -2.075
 0.1166 22.086  -9.117  -2.500
 0.0372 21.929 -10.156  -2.240
 0.0372 22.299  -9.128  -3.545
-0.6497 20.962  -8.395  -1.971
 0.4215 21.054  -7.511  -2.325
 0.0372 27.048  -2.572  10.101
 0.1166 28.028  -3.015  10.003
 0.0372 28.296  -3.541  10.882
 0.0372 28.685  -2.157   9.835
-0.6497 27.937  -3.886   8.904
 0.4215 27.515  -3.486   8.128
 0.0372 18.263  -7.221  -5.951
 0.1166 19.257  -6.835  -6.099
 0.0372 19.907  -7.022  -5.237
 0.0372 19.216  -5.758  -6.177
-0.6497 19.869  -7.274  -7.286
 0.4215 19.256  -6.964  -7.953
 0.0372 18.508  -6.872   5.615
 0.1166 18.339  -7.942   5.937
 0.0372 17.901  -8.652   5.219
 0.0372 17.751  -8.038   6.887
-0.6497 19.599  -8.460   6.260
 0.4215 20.028  -7.827   6.876
 0.0372 16.060 -13.945  -1.134
 0.1166 15.346 -13.374  -0.602
 0.0372 14.810 -12.800  -1.347
 0.0372 15.873 -12.722   0.063
-0.6497 14.506 -14.261   0.086
 0.4215 14.058 -14.780  -0.597
 0.0372 25.900   2.949  -4.573
 0.1166 24.840   2.712  -4.308
 0.0372 24.192   2.709  -5.190
 0.0372 24.479   3.415  -3.569
-0.6497 24.888   1.401  -3.766
 0.4215 25.472   0.843  -4.321
 0.0372 28.005   1.043  -5.135
 0.1166 27.622   0.053  -5.423
 0.0372 27.583  -0.533  -4.505
 0.0372 28.231  -0.375  -6.198
-0.6497 26.275   0.234  -5.876
 0.4215 26.051  -0.520  -6.427
 0.0372 18.241   2.163   6.683
 0.1166 18.425   2.471   5.635
 0.0372 19.497   2.741   5.558
 0.0372 17.860   3.383   5.381
-0.6497 18.057   1.408   4.758
 0.4215 18.204   1.711   3.868
 0.0372 21.291   4.787  -5.382
 0.1166 22.271   5.259  -5.423
 0.0372 22.481   5.621  -6.428
 0.0372 22.974   4.538  -4.993
-0.6497 22.426   6.403  -4.740
 0.4215 21.879   7.146  -5.076
 0.0372 26.253  -2.174  -9.449
 0.1166 26.878  -1.901  -8.579
 0.0372 27.291  -0.900  -8.695
 0.0372 27.703  -2.633  -8.597
-0.6497 26.064  -2.093  -7.397
 0.4215 25.622  -2.948  -7.428
 0.0372 19.196  -1.362  -4.905
 0.1166 19.584  -2.040  -5.699
 0.0372 18.822  -1.915  -6.471
 0.0372 19.590  -3.056  -5.290
-0.6497 20.923  -1.612  -6.023
 0.4215 21.522  -1.859  -5.284
 0.0372 16.064   0.274  13.547
 0.1166 15.029   0.559  13.297
 0.0372 14.836   0.469  12.245
 0.0372 14.963   1.590  13.612
-0.6497 14.147  -0.301  14.038
 0.4215 13.822  -1.095  13.570
 0.0372 11.923  17.195  -3.471
 0.1166 10.892  16.848  -3.571
 0.0372 10.738  16.073  -4.323
 0.0372 10.177  17.670  -3.794
-0.6497 10.608  16.221  -2.339
 0.4215 11.446  16.009  -1.937
 0.0372 19.205   7.630   2.718
 0.1166 19.546   8.582   3.021
 0.0372 20.168   9.156   2.336
 0.0372 20.101   8.397   3.956
-0.6497 18.375   9.397   3.270
 0.4215 17.702   8.885   3.768
 0.0372 26.532   6.612  10.027
 0.1166 26.957   6.452   9.072
 0.0372 28.037   6.530   9.160
 0.0372 26.795   7.251   8.383
-0.6497 26.483   5.202   8.581
 0.4215 26.575   5.147   7.629
 0.0372 20.546  -6.773   0.876
 0.1166 20.595  -6.524   1.931
 0.0372 21.054  -7.326   2.534
 0.0372 19.573  -6.475   2.310
-0.6497 21.172  -5.221   2.165
 0.4215 20.968  -5.023   3.091
 0.0372 17.750   1.859   9.087
 0.1166 16.694   1.827   9.223
 0.0372 16.298   2.237   8.286
 0.0372 16.242   2.415  10.063
-0.6497 16.374   0.475   9.301
 0.4215 16.930   0.089   9.978
 0.0372 10.389  -1.639   2.733
 0.1166 9.841  -2.512   3.087
 0.0372 9.097  -2.365   3.870
 0.0372 10.490  -3.237   3.523
-0.6497 9.311  -3.080   1.959
 0.4215 8.385  -2.751   1.899
 0.0372 19.481 -12.078  14.698
 0.1166 18.486 -11.703  15.014
 0.0372 18.204 -12.333  15.848
 0.0372 17.753 -11.848  14.219
-0.6497 18.521 -10.284  15.366
 0.4215 17.723  -9.999  15.861
 0.0372 22.349  11.025  11.433
 0.1166 21.283  11.079  11.112
 0.0372 21.212  11.655  10.167
 0.0372 20.726  11.435  11.989
-0.6497 20.744   9.749  10.920
 0.4215 21.344   9.212  10.359
 0.0372 6.510   2.981   2.046
 0.1166 6.285   1.947   1.838
 0.0372 7.064   1.717   1.108
 0.0372 5.270   1.871   1.383
-0.6497 6.309   1.132   2.992
 0.4215 6.241   1.820   3.698
 0.0372 11.388   1.263  -4.303
 0.1166 11.890   0.959  -5.212
 0.0372 11.910   1.807  -5.942
 0.0372 11.293   0.146  -5.698
-0.6497 13.211   0.571  -5.018
 0.4215 13.606   0.396  -5.876
 0.0372 11.650  -0.552   6.273
 0.1166 11.453  -1.289   5.491
 0.0372 11.110  -0.787   4.610
 0.0372 10.607  -1.874   5.788
-0.6497 12.548  -2.174   5.343
 0.4215 13.272  -1.717   4.840
 0.0372 14.456 -11.611  -8.211
 0.1166 15.106 -12.217  -7.561
 0.0372 14.657 -13.195  -7.392
 0.0372 15.137 -11.611  -6.649
-0.6497 16.410 -12.176  -8.072
 0.4215 16.301 -12.516  -8.969
 0.0372 19.192 -15.110   0.672
 0.1166 18.613 -14.501   1.328
 0.0372 18.505 -13.558   0.879
 0.0372 19.114 -14.348   2.277
-0.6497 17.390 -15.153   1.607
 0.4215 16.716 -14.508   1.852
 0.0372 11.442   9.585   2.270
 0.1166 11.813   8.644   1.793
 0.0372 11.071   8.170   1.172
 0.0372 12.211   7.912   2.514
-0.6497 12.808   9.110   0.868
 0.4215 12.849   8.479   0.107
 0.0372 10.280  -3.489  11.218
 0.1166 9.581  -4.280  11.257
 0.0372 9.449  -4.863  10.334
 0.0372 8.637  -3.841  11.596
-0.6497 10.113  -5.136  12.235
 0.4215 9.593  -5.086  13.045
 0.0372 23.519  10.511   0.825
 0.1166 24.057   9.634   0.470
 0.0372 24.973   9.614   1.023
 0.0372 24.208   9.683  -0.612
-0.6497 23.330   8.525   0.715
 0.4215 23.924   7.813   0.468
 0.0372 11.152   2.990  -2.151
 0.1166 10.984   3.586  -1.247
 0.0372 10.410   2.930  -0.591
 0.0372 10.356   4.465  -1.397
-0.6497 12.282   3.985  -0.736
 0.4215 12.929   3.248  -0.852
 0.0372 6.020   6.616   8.995
 0.1166 6.214   5.616   8.591
 0.0372 7.286   5.494   8.566
 0.0372 5.910   5.764   7.542
-0.6497 5.574   4.608   9.311
 0.4215 6.239   4.241   9.951
 0.0372 10.622 -10.407   4.194
 0.1166 9.884 -11.122   3.892
 0.0372 9.183 -10.649   3.186
 0.0372 9.316 -11.347   4.781
-0.6497 10.597 -12.297   3.325
 0.4215 11.036 -12.741   4.033
 0.0372 13.625  -0.024   7.660
 0.1166 13.239  -0.724   8.400
 0.0372 13.519  -1.733   8.098
 0.0372 12.169  -0.720   8.489
-0.6497 13.782  -0.246   9.602
 0.4215 14.715  -0.001   9.519
 0.0372 21.495   1.249  -2.667
 0.1166 22.055   1.030  -1.777
 0.0372 22.380  -0.020  -1.900
 0.0372 21.411   1.177  -0.899
-0.6497 23.177   1.867  -1.740
 0.4215 23.640   1.771  -2.596
 0.0372 15.651   5.869  10.481
 0.1166 15.130   6.575   9.826
 0.0372 15.425   7.619  10.049
 0.0372 14.033   6.474   9.848
-0.6497 15.520   6.365   8.523
 0.4215 16.480   6.403   8.497
 0.0372 20.319   6.915   6.536
 0.1166 19.331   7.242   6.852
 0.0372 18.907   7.516   5.880
 0.0372 19.314   8.188   7.366
-0.6497 18.482   6.300   7.432
 0.4215 18.915   5.930   8.205
 0.0372 11.645   5.412   9.034
 0.1166 10.856   5.977   9.528
 0.0372 9.866   5.489   9.436
 0.0372 10.888   6.997   9.159
-0.6497 11.116   6.120  10.880
 0.4215 11.461   5.293  11.239
 0.0372 22.976  -4.127  -6.473
 0.1166 23.187  -4.314  -7.527
 0.0372 22.849  -3.430  -8.054
 0.0372 22.759  -5.194  -7.916
-0.6497 24.586  -4.391  -7.624
 0.4215 24.814  -5.278  -7.442
 0.0372 24.483  -3.486  -3.509
 0.1166 24.220  -2.436  -3.617
 0.0372 24.893  -2.025  -4.377
 0.0372 24.293  -1.981  -2.636
-0.6497 22.890  -2.286  -4.015
 0.4215 22.268  -2.498  -3.284
 0.0372 13.244  -8.622 -15.177
 0.1166 13.687  -7.611 -15.212
 0.0372 12.907  -6.823 -15.080
 0.0372 14.239  -7.470 -16.164
-0.6497 14.662  -7.584 -14.167
 0.4215 15.282  -6.849 -14.326
 0.0372 18.981   6.711  -4.111
 0.1166 18.441   5.757  -4.147
 0.0372 19.030   4.956  -3.693
 0.0372 18.345   5.480  -5.208
-0.6497 17.172   5.900  -3.476
 0.4215 16.872   6.796  -3.683
 0.0372 18.573  -9.598  -9.448
 0.1166 18.563 -10.471 -10.136
 0.0372 19.091 -10.165 -11.082
 0.0372 17.474 -10.629 -10.419
-0.6497 19.106 -11.601  -9.508
 0.4215 18.430 -11.948  -8.874
 0.0372 -0.536 -16.825 -21.742
 0.1166 -0.335 -16.773 -20.669
 0.0372 -0.490 -17.716 -20.109
 0.0372 -1.036 -16.005 -20.321
-0.6497 0.917 -16.157 -20.466
 0.4215 0.848 -15.777 -19.592
 0.0372 14.271  11.670  -1.259
 0.1166 14.112  10.758  -1.815
 0.0372 13.633  10.977  -2.791
 0.0372 13.510  10.226  -1.124
-0.6497 15.354  10.161  -2.077
 0.4215 15.889  10.175  -1.253
 0.0372 18.672  -4.856 -17.058
 0.1166 19.021  -5.872 -17.239
 0.0372 20.067  -5.856 -17.563
 0.0372 18.321  -6.303 -17.978
-0.6497 18.977  -6.602 -16.053
 0.4215 18.982  -7.577 -16.259
 0.0372 22.212  -0.794 -15.059
 0.1166 21.377  -1.233 -15.626
 0.0372 20.819  -1.853 -14.921
 0.0372 21.752  -1.810 -16.456
-0.6497 20.473  -0.320 -16.141
 0.4215 20.781   0.577 -15.904
 0.0372 12.500  -2.457 -12.300
 0.1166 13.098  -3.170 -12.902
 0.0372 14.148  -3.018 -12.737
 0.0372 13.053  -3.044 -14.012
-0.6497 12.611  -4.447 -12.523
 0.4215 12.919  -4.644 -11.613
 0.0372 6.445  -2.660 -19.272
 0.1166 7.191  -3.111 -18.558
 0.0372 6.826  -4.093 -18.272
 0.0372 7.133  -2.540 -17.634
-0.6497 8.509  -3.161 -19.064
 0.4215 9.107  -3.585 -18.424
 0.0372 16.540   4.838 -19.282
 0.1166 17.471   5.434 -19.399
 0.0372 18.158   4.980 -20.141
 0.0372 17.895   5.384 -18.381
-0.6497 17.161   6.818 -19.719
 0.4215 17.591   7.331 -19.003
 0.0372 15.649  -4.161 -14.234
 0.1166 16.523  -4.499 -14.780
 0.0372 17.285  -3.732 -14.822
 0.0372 16.150  -4.643 -15.783
-0.6497 17.031  -5.695 -14.291
 0.4215 17.737  -6.072 -14.870
 0.0372 7.394  -3.585 -10.065
 0.1166 7.569  -4.480 -10.624
 0.0372 7.970  -5.278  -9.977
 0.0372 8.330  -4.424 -11.411
-0.6497 6.225  -4.853 -10.962
 0.4215 5.641  -4.978 -10.190
 0.0372 26.333  -8.607  -8.956
 0.1166 26.096  -8.215  -7.950
 0.0372 26.991  -7.732  -7.551
 0.0372 25.843  -9.088  -7.343
-0.6497 24.986  -7.246  -7.932
 0.4215 24.119  -7.649  -7.772
 0.0372 15.900 -18.977  -6.160
 0.1166 15.299 -19.500  -5.433
 0.0372 14.770 -18.755  -4.794
 0.0372 15.909 -20.177  -4.823
-0.6497 14.264 -20.202  -6.094
 0.4215 13.981 -19.598  -6.826
 0.0372 16.867   7.746  -7.257
 0.1166 17.732   7.335  -7.796
 0.0372 18.632   7.454  -7.172
 0.0372 17.997   7.860  -8.747
-0.6497 17.492   5.945  -8.037
 0.4215 16.623   5.895  -8.455
 0.0372 11.864  -3.147 -20.852
 0.1166 12.198  -4.161 -20.805
 0.0372 12.177  -4.595 -21.777
 0.0372 11.482  -4.588 -20.113
-0.6497 13.522  -4.175 -20.212
 0.4215 13.746  -5.080 -19.999
 0.0372 27.175   2.694  -9.438
 0.1166 26.404   1.949  -9.273
 0.0372 26.439   1.464  -8.268
 0.0372 26.576   1.173 -10.026
-0.6497 25.244   2.616  -9.557
 0.4215 24.872   2.189 -10.333
 0.0372 17.933  -6.984 -11.477
 0.1166 17.621  -6.605 -10.533
 0.0372 17.052  -7.365  -9.976
 0.0372 16.974  -5.886 -10.998
-0.6497 18.729  -6.025  -9.845
 0.4215 18.857  -5.131 -10.212
 0.0372 22.274 -10.131  -6.068
 0.1166 22.366  -9.077  -6.304
 0.0372 23.044  -8.632  -5.576
 0.0372 21.424  -8.595  -6.115
-0.6497 22.942  -9.023  -7.598
 0.4215 22.429  -9.663  -8.142
 0.0372 24.607   5.840  -9.325
 0.1166 24.344   5.351  -8.384
 0.0372 23.470   4.712  -8.622
 0.0372 23.961   6.104  -7.650
-0.6497 25.366   4.626  -7.762
 0.4215 25.425   3.837  -8.342
 0.0372 10.330 -13.044 -22.954
 0.1166 11.192 -12.330 -23.016
 0.0372 11.124 -11.869 -24.004
 0.0372 12.114 -12.921 -22.836
-0.6497 11.000 -11.275 -22.002
 0.4215 11.543 -10.482 -22.259
 0.0372 24.063  -4.429 -15.483
 0.1166 24.024  -4.295 -14.424
 0.0372 24.993  -3.930 -14.001
 0.0372 23.743  -5.321 -14.145
-0.6497 23.020  -3.319 -14.051
 0.4215 22.126  -3.608 -14.277
 0.0372 20.256 -10.720 -17.623
 0.1166 20.275  -9.642 -17.727
 0.0372 20.170  -9.453 -18.806
 0.0372 21.231  -9.249 -17.407
-0.6497 19.132  -9.081 -17.099
 0.4215 18.429  -9.729 -17.143
 0.0372 28.837   3.824  -6.045
 0.1166 28.637   4.630  -6.744
 0.0372 28.416   4.283  -7.728
 0.0372 29.482   5.338  -6.802
-0.6497 27.519   5.315  -6.284
 0.4215 26.753   5.126  -6.847
 0.0372 10.162   0.745 -15.081
 0.1166 10.653   0.914 -14.154
 0.0372 9.903   1.069 -13.350
 0.0372 11.236   1.808 -14.145
-0.6497 11.462  -0.232 -13.957
 0.4215 12.343  -0.047 -14.361
 0.0372 17.441  -8.628 -13.450
 0.1166 17.402  -9.491 -14.172
 0.0372 18.337  -9.965 -14.439
 0.0372 17.003  -9.117 -15.133
-0.6497 16.656 -10.490 -13.606
 0.4215 15.999 -10.041 -13.059
 0.0372 20.792   9.066  -3.656
 0.1166 20.253   9.193  -4.598
 0.0372 20.319  10.176  -5.067
 0.0372 19.187   8.965  -4.402
-0.6497 20.763   8.212  -5.538
 0.4215 20.888   8.611  -6.426
 0.0372 22.102  -6.210 -10.048
 0.1166 21.810  -7.246 -10.277
 0.0372 21.439  -7.615  -9.357
 0.0372 22.664  -7.845 -10.459
-0.6497 20.829  -7.221 -11.308
 0.4215 20.038  -6.761 -10.974
 0.0372 19.875  -2.661  -8.912
 0.1166 19.438  -2.376  -9.838
 0.0372 20.048  -1.640 -10.380
 0.0372 18.502  -1.883  -9.607
-0.6497 19.084  -3.456 -10.692
 0.4215 18.728  -3.128 -11.519
 0.0372 4.356 -12.243 -24.690
 0.1166 4.850 -11.312 -24.351
 0.0372 4.657 -11.121 -23.294
 0.0372 4.419 -10.459 -24.885
-0.6497 6.255 -11.377 -24.503
 0.4215 6.526 -10.472 -24.334
 0.0372 16.966   2.142  -8.536
 0.1166 17.072   1.915  -9.559
 0.0372 17.677   2.719 -10.010
 0.0372 16.170   1.900 -10.177
-0.6497 17.730   0.614  -9.651
 0.4215 18.637   0.717  -9.406
 0.0372 26.627   0.473 -12.425
 0.1166 25.892   1.222 -12.676
 0.0372 25.721   1.140 -13.752
 0.0372 26.321   2.230 -12.425
-0.6497 24.673   1.011 -11.972
 0.4215 24.493   0.059 -12.146
 0.0372 4.285  -3.632 -23.665
 0.1166 4.174  -3.317 -22.627
 0.0372 3.247  -3.812 -22.271
 0.0372 4.048  -2.258 -22.515
-0.6497 5.318  -3.802 -21.897
 0.4215 6.112  -3.266 -21.962
 0.0372 18.381   9.606 -16.443
 0.1166 18.262   9.170 -17.426
 0.0372 19.204   9.392 -17.932
 0.0372 17.494   9.699 -17.955
-0.6497 17.961   7.800 -17.448
 0.4215 18.290   7.349 -16.656
 0.0372 26.958 -12.655  -3.417
 0.1166 26.108 -12.518  -4.108
 0.0372 25.691 -13.453  -4.468
 0.0372 26.439 -11.978  -4.992
-0.6497 25.051 -11.728  -3.550
 0.4215 24.676 -12.390  -2.926
 0.0372 16.998 -15.264 -17.621
 0.1166 16.546 -14.798 -16.758
 0.0372 16.910 -15.334 -15.865
 0.0372 15.484 -14.701 -16.793
-0.6497 16.957 -13.440 -16.736
 0.4215 17.337 -13.240 -15.857
 0.0372 22.444  -9.536 -13.877
 0.1166 21.636  -8.830 -14.124
 0.0372 21.363  -8.736 -15.178
 0.0372 22.016  -7.913 -13.741
-0.6497 20.460  -9.095 -13.358
 0.4215 20.400  -8.454 -12.647
 0.0372 23.954  -0.311  -7.630
 0.1166 23.424   0.443  -7.122
 0.0372 23.765   1.410  -7.504
 0.0372 23.507   0.358  -6.040
-0.6497 22.058   0.444  -7.387
 0.4215 21.628  -0.290  -6.950
 0.0372 16.749  -2.119  -6.005
 0.1166 16.172  -1.271  -5.708
 0.0372 15.148  -1.686  -5.677
 0.0372 16.173  -0.363  -6.335
-0.6497 16.477  -0.924  -4.401
 0.4215 16.377   0.037  -4.381
 0.0372 20.104  -6.058 -13.390
 0.1166 20.285  -4.980 -13.598
 0.0372 21.061  -4.598 -12.959
 0.0372 19.308  -4.460 -13.545
-0.6497 20.790  -4.809 -14.920
 0.4215 20.261  -5.399 -15.506
 0.0372 15.295  -4.273  -3.909
 0.1166 14.398  -4.838  -4.198
 0.0372 13.555  -4.207  -3.951
 0.0372 14.309  -5.708  -3.579
-0.6497 14.551  -5.277  -5.496
 0.4215 14.158  -6.133  -5.606
 0.0372 4.030  -6.612 -19.192
 0.1166 4.887  -6.993 -19.744
 0.0372 4.605  -7.413 -20.725
 0.0372 5.296  -7.801 -19.133
-0.6497 5.693  -5.944 -20.076
 0.4215 5.358  -5.394 -20.800
 0.0372 27.885  -0.095   1.337
 0.1166 27.206  -0.950   1.176
 0.0372 27.002  -1.458   2.130
 0.0372 27.615  -1.730   0.530
-0.6497 25.958  -0.537   0.717
 0.4215 26.107   0.330   0.254
 0.0372 12.875  -9.063 -11.126
 0.1166 13.938  -9.144 -10.868
 0.0372 14.055 -10.072 -10.263
 0.0372 14.287  -8.231 -10.426
-0.6497 14.759  -9.311 -11.983
 0.4215 14.488  -8.576 -12.544
 0.0372 22.276  -2.458 -10.776
 0.1166 23.348  -2.317 -10.800
 0.0372 23.893  -3.280 -10.865
 0.0372 23.590  -1.837  -9.875
-0.6497 23.719  -1.609 -12.005
 0.4215 23.389  -2.171 -12.708
 0.0372 8.454 -12.580 -21.245
 0.1166 7.891 -11.902 -21.863
 0.0372 8.458 -11.442 -22.661
 0.0372 7.392 -11.180 -21.210
-0.6497 6.789 -12.670 -22.332
 0.4215 6.378 -12.270 -23.113
 0.0372 14.058  -0.381 -20.158
 0.1166 14.850  -0.736 -20.855
 0.0372 14.727  -1.776 -21.146
 0.0372 15.813  -0.661 -20.369
-0.6497 14.924   0.121 -21.974
 0.4215 14.173   0.013 -22.578
 0.0372 16.141  -8.967  -4.469
 0.1166 17.065  -9.383  -4.074
 0.0372 17.436  -8.808  -3.220
 0.0372 17.853  -9.380  -4.845
-0.6497 16.728 -10.681  -3.681
 0.4215 17.436 -10.975  -3.119
 0.0372 15.584   0.612 -12.434
 0.1166 14.878  -0.060 -11.910
 0.0372 14.164  -0.537 -12.621
 0.0372 14.277   0.476 -11.186
-0.6497 15.598  -1.046 -11.136
 0.4215 16.194  -0.554 -10.539
 0.0372 19.995 -12.804 -14.372
 0.1166 19.210 -13.201 -13.760
 0.0372 19.285 -12.798 -12.768
 0.0372 19.216 -14.272 -13.560
-0.6497 17.917 -12.765 -14.299
 0.4215 17.655 -11.927 -13.884
 0.0372 20.181 -11.376  -5.383
 0.1166 20.000 -12.061  -6.190
 0.0372 20.767 -12.875  -6.224
 0.0372 19.988 -11.590  -7.160
-0.6497 18.841 -12.880  -5.937
 0.4215 18.097 -12.414  -5.493
 0.0372 22.259   1.585 -10.713
 0.1166 21.558   0.737 -10.607
 0.0372 22.249  -0.065 -10.311
 0.0372 21.143   0.592 -11.616
-0.6497 20.579   0.659  -9.483
 0.4215 21.174   0.667  -8.704
 0.0372 21.383   3.868  -8.183
 0.1166 20.281   4.114  -8.169
 0.0372 19.666   3.589  -7.393
 0.0372 19.872   3.731  -9.124
-0.6497 20.100   5.528  -8.012
 0.4215 19.119   5.626  -7.957
 0.0372 15.863   4.528 -13.091
 0.1166 16.676   5.069 -12.583
 0.0372 16.891   4.540 -11.683
 0.0372 16.332   6.054 -12.223
-0.6497 17.716   5.056 -13.527
 0.4215 17.560   4.292 -14.095
 0.0372 -0.774 -17.419  19.107
 0.1166 -0.194 -16.534  19.377
 0.0372 -0.747 -15.623  19.117
 0.0372 0.755 -16.473  18.820
-0.6497 0.048 -16.496  20.782
 0.4215 -0.791 -16.454  21.296
 0.0372 6.125 -22.269  13.992
 0.1166 6.160 -21.647  14.907
 0.0372 5.533 -20.726  14.825
 0.0372 7.216 -21.370  15.023
-0.6497 5.745 -22.398  15.994
 0.4215 6.096 -22.170  16.871
 0.0372 22.708  -8.831  10.193
 0.1166 22.669  -9.906  10.486
 0.0372 22.086  -9.969  11.383
 0.0372 23.650 -10.350  10.662
-0.6497 21.907 -10.598   9.481
 0.4215 22.477 -10.723   8.705
 0.0372 14.361 -10.188  17.818
 0.1166 15.444 -10.056  17.878
 0.0372 15.829 -10.883  18.459
 0.0372 15.540  -9.118  18.437
-0.6497 16.180  -9.904  16.659
 0.4215 15.741  -9.255  16.091
 0.0372 14.188 -18.904  16.294
 0.1166 14.230 -19.921  15.857
 0.0372 13.939 -20.712  16.557
 0.0372 15.240 -20.204  15.498
-0.6497 13.399 -19.964  14.695
 0.4215 13.776 -19.292  14.046
 0.0372 16.829 -19.516  10.702
 0.1166 16.831 -20.278  11.453
 0.0372 17.659 -20.097  12.135
 0.0372 16.902 -21.254  10.943
-0.6497 15.566 -20.180  12.131
 0.4215 15.090 -20.947  11.809
 0.0372 14.143 -13.563   4.452
 0.1166 14.006 -13.983   3.449
 0.0372 13.090 -13.526   3.076
 0.0372 13.977 -15.076   3.543
-0.6497 15.086 -13.799   2.508
 0.4215 14.711 -14.151   1.652
 0.0372 2.860 -23.980  16.922
 0.1166 2.754 -23.066  17.508
 0.0372 3.473 -23.111  18.334
 0.0372 1.733 -22.847  17.807
-0.6497 3.159 -22.025  16.607
 0.4215 4.057 -22.224  16.284
 0.0372 21.255 -15.738  10.219
 0.1166 21.085 -14.727   9.928
 0.0372 21.819 -14.613   9.151
 0.0372 21.399 -13.954  10.696
-0.6497 19.747 -14.614   9.425
 0.4215 19.826 -14.643   8.451
 0.0372 8.721 -11.834  21.175
 0.1166 8.084 -11.204  20.530
 0.0372 8.719 -10.518  20.026
 0.0372 7.251 -10.716  21.022
-0.6497 7.475 -12.076  19.646
 0.4215 6.792 -12.524  20.180
 0.0372 18.467 -10.701   7.321
 0.1166 18.731 -11.204   8.263
 0.0372 18.881 -10.445   9.024
 0.0372 19.697 -11.724   8.101
-0.6497 17.627 -12.105   8.634
 0.4215 17.911 -12.503   9.461
 0.0372 -4.423 -10.906  21.937
 0.1166 -4.945 -10.471  21.066
 0.0372 -6.020 -10.358  21.226
 0.0372 -4.961 -11.090  20.165
-0.6497 -4.362  -9.212  20.626
 0.4215 -3.636  -9.133  21.258
 0.0372 4.537 -27.248   8.497
 0.1166 4.502 -26.153   8.431
 0.0372 5.247 -25.664   7.767
 0.0372 4.586 -25.712   9.403
-0.6497 3.191 -25.800   8.073
 0.4215 3.076 -26.220   7.215
 0.0372 0.248 -19.712  14.498
 0.1166 1.234 -20.177  14.424
 0.0372 1.705 -20.209  13.447
 0.0372 1.001 -21.233  14.569
-0.6497 2.206 -19.667  15.333
 0.4215 2.359 -20.370  15.980
 0.0372 14.199 -13.847  10.957
 0.1166 13.903 -13.058  10.283
 0.0372 12.975 -12.546  10.478
 0.0372 13.692 -13.517   9.319
-0.6497 15.009 -12.248  10.027
 0.4215 15.783 -12.762  10.265
 0.0372 22.960 -18.180   0.301
 0.1166 23.104 -17.235   0.815
 0.0372 23.580 -16.566   0.080
 0.0372 23.622 -17.455   1.771
-0.6497 21.793 -16.684   1.062
 0.4215 21.269 -17.266   1.610
 0.0372 7.422 -11.223  14.231
 0.1166 8.446 -11.095  13.861
 0.0372 8.629  -9.972  13.885
 0.0372 8.554 -11.480  12.838
-0.6497 9.421 -11.751  14.668
 0.4215 8.969 -11.824  15.514
 0.0372 15.602 -14.952  -3.861
 0.1166 16.551 -14.429  -3.973
 0.0372 16.774 -13.783  -3.116
 0.0372 16.471 -13.889  -4.916
-0.6497 17.561 -15.373  -4.135
 0.4215 18.201 -15.010  -4.741
 0.0372 19.915 -10.668   4.135
 0.1166 20.757 -11.202   4.484
 0.0372 21.503 -11.294   3.695
 0.0372 20.457 -12.180   4.878
-0.6497 21.291 -10.547   5.639
 0.4215 20.690  -9.826   5.844
 0.0372 13.454 -24.864  -1.663
 0.1166 13.295 -25.303  -0.641
 0.0372 14.078 -24.893  -0.000
 0.0372 13.384 -26.382  -0.635
-0.6497 12.047 -24.837  -0.226
 0.4215 12.017 -25.099   0.703
 0.0372 14.418  -8.153  -0.636
 0.1166 13.846  -7.304  -0.193
 0.0372 12.780  -7.496  -0.359
 0.0372 14.170  -6.340  -0.623
-0.6497 14.017  -7.313   1.174
 0.4215 14.736  -6.678   1.405
 0.0372 15.651 -15.951  13.121
 0.1166 15.960 -16.993  12.989
 0.0372 16.452 -17.485  13.820
 0.0372 16.697 -16.929  12.200
-0.6497 14.833 -17.760  12.634
 0.4215 15.205 -18.590  12.318
 0.0372 10.907 -13.725  10.891
 0.1166 9.986 -14.044  11.374
 0.0372 9.088 -13.615  10.880
 0.0372 9.929 -13.704  12.413
-0.6497 9.817 -15.418  11.298
 0.4215 10.622 -15.808  11.693
 0.0372 12.294  -9.657   1.797
 0.1166 12.973  -9.956   2.593
 0.0372 13.877 -10.199   2.028
 0.0372 12.673 -10.810   3.180
-0.6497 13.232  -8.906   3.509
 0.4215 13.617  -8.182   2.954
 0.0372 24.452 -16.096  -7.198
 0.1166 24.242 -15.001  -7.176
 0.0372 24.245 -14.647  -8.205
 0.0372 25.046 -14.542  -6.611
-0.6497 22.911 -14.732  -6.646
 0.4215 22.952 -14.750  -5.679
 0.0372 11.528 -22.485  -2.019
 0.1166 10.536 -22.768  -2.432
 0.0372 10.571 -22.306  -3.403
 0.0372 9.655 -22.403  -1.913
-0.6497 10.546 -24.158  -2.382
 0.4215 11.037 -24.399  -1.560
 0.0372 11.367 -13.325  -5.414
 0.1166 10.810 -13.194  -6.339
 0.0372 9.800 -12.858  -6.018
 0.0372 10.718 -14.161  -6.806
-0.6497 11.441 -12.248  -7.245
 0.4215 10.925 -12.290  -8.061
 0.0372 15.455  -2.145  -1.422
 0.1166 15.890  -2.661  -0.545
 0.0372 15.873  -1.972   0.269
 0.0372 16.981  -2.695  -0.759
-0.6497 15.331  -3.984  -0.154
 0.4215 14.355  -3.918  -0.230
 0.0372 8.499 -18.967  -2.391
 0.1166 8.590 -19.321  -3.426
 0.0372 9.397 -20.034  -3.502
 0.0372 8.824 -18.410  -3.996
-0.6497 7.424 -19.787  -4.025
 0.4215 7.621 -20.256  -4.857
 0.0372 16.179 -22.132   8.877
 0.1166 15.963 -22.307   7.785
 0.0372 15.046 -22.885   7.582
 0.0372 16.835 -22.820   7.310
-0.6497 15.832 -21.137   6.998
 0.4215 16.238 -20.373   7.406
 0.0372 21.559 -18.141  -5.989
 0.1166 20.551 -18.303  -6.366
 0.0372 20.083 -18.854  -5.553
 0.0372 20.427 -18.801  -7.355
-0.6497 20.048 -16.971  -6.400
 0.4215 20.442 -16.459  -7.109
 0.0372 16.016 -24.061   1.082
 0.1166 16.681 -23.427   1.676
 0.0372 17.650 -23.943   1.599
 0.0372 16.219 -23.466   2.660
-0.6497 16.767 -22.064   1.269
 0.4215 17.027 -22.044   0.337
 0.0372 25.025  -9.637   0.481
 0.1166 24.110  -9.708   1.078
 0.0372 23.616 -10.661   1.040
 0.0372 23.394  -9.039   0.607
-0.6497 24.435  -9.312   2.385
 0.4215 25.000  -8.534   2.388
 0.0372 18.885 -19.513   6.865
 0.1166 18.401 -18.604   7.282
 0.0372 18.291 -17.796   6.541
 0.0372 19.194 -18.200   7.965
-0.6497 17.148 -18.874   7.866
 0.4215 16.834 -17.985   8.139
 0.0372 14.650 -17.034   9.291
 0.1166 15.321 -16.188   9.139
 0.0372 15.944 -16.054  10.032
 0.0372 14.754 -15.269   8.917
-0.6497 16.187 -16.451   8.094
 0.4215 16.790 -15.718   7.935
 0.0372 19.051 -21.584   5.274
 0.1166 18.228 -21.863   4.582
 0.0372 17.853 -22.877   4.761
 0.0372 18.691 -21.773   3.574
-0.6497 17.222 -20.925   4.692
 0.4215 16.635 -21.171   5.414
 0.0372 10.870 -15.419   8.300
 0.1166 11.722 -16.021   7.939
 0.0372 11.896 -16.855   8.624
 0.0372 12.633 -15.377   7.866
-0.6497 11.386 -16.622   6.689
 0.4215 12.203 -16.778   6.220
 0.0372 1.189 -21.933   7.740
 0.1166 1.571 -22.924   7.455
 0.0372 2.553 -22.860   6.956
 0.0372 0.820 -23.506   6.841
-0.6497 1.714 -23.584   8.725
 0.4215 2.128 -24.429   8.570
 0.0372 20.690 -17.924  -1.077
 0.1166 19.867 -18.585  -0.709
 0.0372 19.100 -17.934  -0.239
 0.0372 20.323 -19.239   0.054
-0.6497 19.313 -19.399  -1.686
 0.4215 18.749 -18.862  -2.274
 0.0372 14.399 -17.960   0.864
 0.1166 13.367 -17.964   1.142
 0.0372 12.672 -18.587   0.600
 0.0372 13.112 -16.897   1.151
-0.6497 13.327 -18.453   2.469
 0.4215 13.714 -19.336   2.489
 0.0372 26.701  -6.087   0.068
 0.1166 27.096  -6.371   1.069
 0.0372 27.573  -5.528   1.547
 0.0372 27.887  -7.129   0.980
-0.6497 26.091  -6.942   1.805
 0.4215 25.381  -6.301   1.789
 0.0372 -0.017 -20.875 -10.630
 0.1166 -0.328 -20.175 -11.422
 0.0372 -0.158 -20.560 -12.440
 0.0372 0.264 -19.253 -11.303
-0.6497 -1.682 -19.946 -11.326
 0.4215 -1.970 -20.746 -10.864
 0.0372 7.977 -26.575  -0.084
 0.1166 7.863 -25.738   0.560
 0.0372 8.135 -24.867  -0.068
 0.0372 8.492 -25.931   1.432
-0.6497 6.471 -25.678   0.884
 0.4215 6.148 -24.850   1.241
 0.0372 16.865 -17.717   2.645
 0.1166 17.417 -18.510   2.146
 0.0372 17.796 -18.172   1.153
 0.0372 16.767 -19.361   2.018
-0.6497 18.397 -19.008   3.004
 0.4215 17.932 -19.566   3.650
 0.0372 23.545  -6.181  10.148
 0.1166 23.879  -5.771   9.198
 0.0372 24.215  -6.485   8.443
 0.0372 24.736  -5.110   9.355
-0.6497 22.875  -4.935   8.701
 0.4215 22.979  -4.163   9.309
 0.0372 10.913  -4.548   0.514
 0.1166 11.927  -4.081   0.494
 0.0372 12.513  -4.303   1.363
 0.0372 11.784  -2.992   0.409
-0.6497 12.752  -4.404  -0.652
 0.4215 12.210  -4.698  -1.388
 0.0372 17.021 -23.504  -2.010
 0.1166 17.939 -22.867  -2.111
 0.0372 18.117 -22.702  -3.159
 0.0372 18.853 -23.388  -1.804
-0.6497 17.624 -21.713  -1.435
 0.4215 18.289 -21.036  -1.423
 0.0372 13.303 -25.129   7.282
 0.1166 13.308 -25.606   6.317
 0.0372 12.959 -26.628   6.455
 0.0372 14.340 -25.629   5.925
-0.6497 12.404 -24.816   5.544
 0.4215 11.776 -24.378   6.150
 0.0372 10.757 -23.872   9.199
 0.1166 10.275 -23.463   8.308
 0.0372 9.603 -22.673   8.595
 0.0372 9.761 -24.292   7.838
-0.6497 11.251 -22.928   7.424
 0.4215 10.854 -22.138   7.001
 0.0372 14.637 -19.603  -0.905
 0.1166 14.305 -20.566  -1.222
 0.0372 13.555 -20.949  -0.496
 0.0372 15.098 -21.246  -1.249
-0.6497 13.794 -20.392  -2.560
 0.4215 13.817 -21.268  -2.960
 0.0372 10.852 -23.670  13.668
 0.1166 10.701 -22.869  14.374
 0.0372 11.722 -22.458  14.533
 0.0372 10.233 -23.320  15.259
-0.6497 9.883 -21.880  13.771
 0.4215 9.707 -21.103  14.304
 0.0372 18.677 -15.861 -11.729
 0.1166 18.824 -16.795 -12.302
 0.0372 19.673 -17.326 -11.897
 0.0372 19.112 -16.652 -13.331
-0.6497 17.654 -17.551 -12.143
 0.4215 17.538 -17.892 -13.033
 0.0372 22.909  -6.441   6.236
 0.1166 22.370  -7.322   6.519
 0.0372 22.830  -8.196   7.058
 0.0372 21.912  -7.573   5.553
-0.6497 21.366  -6.815   7.394
 0.4215 21.719  -6.084   7.899
 0.0372 25.083  -9.063   6.529
 0.1166 24.948 -10.118   6.400
 0.0372 25.791 -10.712   6.739
 0.0372 24.813 -10.281   5.342
-0.6497 23.682 -10.528   7.071
 0.4215 22.919 -10.320   6.485
 0.0372 8.849 -20.555   8.606
 0.1166 9.215 -19.845   7.854
 0.0372 9.789 -19.091   8.391
 0.0372 8.361 -19.492   7.277
-0.6497 10.076 -20.558   6.970
 0.4215 10.264 -20.064   6.172
 0.0372 11.842 -24.331  -6.323
 0.1166 11.823 -23.542  -7.092
 0.0372 12.527 -23.799  -7.867
 0.0372 11.948 -22.558  -6.561
-0.6497 10.493 -23.574  -7.583
 0.4215 9.946 -23.879  -6.879
 0.0372 13.266 -13.235   6.875
 0.1166 12.241 -12.894   6.786
 0.0372 12.151 -11.862   6.507
 0.0372 11.832 -13.047   7.794
-0.6497 11.555 -13.695   5.930
 0.4215 11.250 -14.464   6.414
 0.0372 11.215 -19.394  -2.062
 0.1166 11.360 -18.408  -2.530
 0.0372 10.689 -17.590  -2.159
 0.0372 11.096 -18.448  -3.595
-0.6497 12.678 -18.003  -2.490
 0.4215 13.249 -18.763  -2.680
 0.0372 7.928 -18.981   0.846
 0.1166 8.956 -18.969   0.484
 0.0372 9.013 -19.520  -0.481
 0.0372 9.617 -19.468   1.177
-0.6497 9.408 -17.597   0.377
 0.4215 9.718 -17.376   1.271
 0.0372 20.784  -1.555   3.135
